0.029010 -0.162102 0.220032 
0.176305 0.230710 -0.137534 
-0.169656 -0.051843 0.079247 
-0.174273 -0.058399 0.050744 
-0.122702 0.129722 -0.072498 
-0.031934 0.062837 -0.048752 
-0.032087 -0.013682 -0.077681 
-0.006901 -0.043972 0.265298 
0.009536 0.024384 -0.105436 
0.025074 0.139225 -0.141425 
0.073655 0.252425 -0.274531 
0.154728 0.058201 -0.026341 
0.181423 -0.019673 0.074786 
0.014285 -0.226490 0.207174 
-0.216244 -0.170277 0.058305 
0.082830 0.024481 -0.117574 
-0.025608 -0.261775 -0.128715 
0.050315 0.024530 -0.055649 
0.088972 -0.168894 0.164385 
-0.099002 0.153453 -0.079655 
-0.195591 0.022527 0.137471 
0.071152 -0.013684 0.121578 
-0.205760 -0.223012 0.071684 
0.106180 0.024534 -0.061065 
0.083168 0.024515 0.098661 
-0.137707 0.024540 0.075971 
0.142792 0.023083 0.194665 
-0.066374 -0.023583 -0.132098 
0.041821 -0.013661 -0.017224 
0.107650 0.093387 -0.073767 
0.215650 0.036646 0.038054 
-0.029746 0.054343 -0.108460 
-0.061214 -0.016207 -0.114498 
0.037062 -0.073307 0.250233 
0.172896 0.030802 0.138452 
-0.024863 -0.212511 -0.117347 
-0.041182 -0.035670 -0.145805 
-0.118784 0.024517 0.113734 
0.204808 -0.038435 0.087370 
0.023514 -0.129785 0.248432 
0.155845 0.109664 -0.066632 
-0.026441 -0.049507 0.201310 
-0.089688 -0.013659 -0.083862 
-0.167423 -0.173347 0.054467 
0.009837 -0.144597 0.205667 
0.215998 -0.018554 0.088325 
0.142788 0.035848 0.193780 
0.139584 -0.167030 0.116552 
0.119729 0.055499 0.183955 
0.212680 -0.077095 0.021169 
-0.168114 -0.025500 -0.078833 
-0.003546 -0.262100 0.260535 
-0.095118 -0.015039 0.206996 
-0.114420 -0.045164 -0.119458 
0.043957 0.242410 -0.175357 
0.108525 0.024529 0.011231 
-0.086513 0.252322 -0.186291 
-0.240158 -0.061834 0.032741 
0.207183 0.083757 0.166848 
0.011012 0.202958 -0.131135 
0.186692 0.095309 0.101724 
0.063825 0.117113 -0.084953 
0.115148 -0.013661 0.014135 
0.209329 -0.022967 0.017029 
0.042336 0.122122 -0.091805 
-0.129595 0.024525 0.102184 
-0.244899 -0.040251 0.076966 
-0.207192 0.231486 -0.204691 
0.196418 0.254321 -0.199657 
0.068223 0.199501 -0.167865 
0.085389 -0.013661 -0.102271 
-0.026259 -0.182422 -0.117039 
-0.203954 0.049514 0.073726 
0.153476 0.188582 -0.140191 
0.149498 0.216349 -0.126134 
0.222093 -0.066906 0.019366 
-0.193883 -0.042462 0.128830 
0.169559 0.094888 0.098834 
0.209140 0.044238 0.086503 
-0.014982 -0.069537 -0.164433 
0.133134 0.024537 0.111443 
-0.136469 -0.169152 -0.041415 
-0.034089 -0.013740 -0.124010 
0.001817 -0.184499 0.235364 
0.011987 0.044816 0.233129 
-0.017226 0.024389 -0.088332 
-0.147240 0.224479 -0.180164 
0.162933 -0.164587 0.038226 
-0.028354 0.067413 -0.130927 
0.227733 -0.049314 0.072851 
-0.016262 -0.225073 -0.105629 
-0.126218 -0.043016 0.197481 
-0.179467 0.250201 -0.247782 
-0.061644 0.011154 0.227015 
-0.153890 0.062501 0.090212 
0.026430 -0.013669 -0.049933 
-0.204273 -0.036371 0.019993 
-0.153043 0.192675 -0.096898 
0.007209 0.091079 -0.138787 
0.138863 0.198026 -0.147686 
0.049235 0.169138 -0.104200 
-0.020951 -0.214814 -0.107079 
-0.033118 -0.127659 -0.124789 
0.139085 0.259512 -0.205136 
-0.162588 0.060185 0.005842 
-0.090492 0.058314 0.190763 
-0.084908 0.155423 -0.131614 
0.004867 -0.260781 0.270801 
0.017707 -0.146605 -0.121554 
-0.073078 0.063233 0.043659 
0.033973 0.101312 -0.133173 
-0.183048 -0.072920 0.064425 
0.037783 0.147289 -0.141430 
-0.042616 0.096616 -0.099927 
-0.045252 0.090930 -0.110709 
-0.167808 0.070978 0.153869 
0.193788 0.036434 -0.030081 
0.117897 0.059297 0.172871 
-0.078941 0.060181 0.187936 
-0.166680 0.020081 -0.070723 
-0.115784 0.081269 -0.079078 
0.054931 0.067378 -0.107013 
0.132649 0.020568 0.201904 
0.078890 0.218743 -0.132793 
-0.037302 0.196761 -0.122661 
-0.142209 0.213638 -0.117416 
0.117752 0.131401 -0.078337 
0.060814 -0.013663 -0.067446 
0.205889 -0.006038 0.110565 
0.055645 -0.013683 0.127993 
-0.140125 0.178747 -0.103124 
-0.025901 -0.121454 -0.146099 
-0.206991 0.003449 0.104981 
-0.060522 -0.013678 0.039930 
0.078396 0.137002 -0.081971 
0.186346 0.092754 0.049015 
-0.003157 -0.013679 -0.079277 
-0.043877 0.058714 -0.088642 
0.065371 0.234357 -0.158004 
-0.031940 -0.013676 0.161866 
-0.132620 -0.044260 0.218096 
-0.001376 0.059813 -0.089046 
-0.059916 0.024495 0.115011 
-0.101767 -0.013680 0.149519 
-0.032047 0.046390 -0.123031 
0.119064 -0.173432 0.155106 
-0.050374 0.024464 0.223139 
0.201625 -0.013588 -0.011322 
-0.220149 0.231709 -0.183849 
0.219168 0.008305 0.050654 
-0.089773 0.032561 -0.116900 
0.093041 0.063251 0.009894 
0.113669 -0.043995 0.229883 
0.057107 -0.013672 0.073218 
-0.088767 -0.013678 0.138056 
0.173379 0.251521 -0.233759 
0.001569 -0.058527 -0.097927 
-0.016865 0.063203 -0.009446 
0.201109 0.238159 -0.193286 
-0.019473 -0.245306 -0.159613 
-0.208645 0.036781 0.004097 
-0.095007 -0.166494 0.176966 
0.017573 0.063235 0.002622 
0.154589 -0.172971 0.099021 
-0.150158 0.189788 -0.122944 
-0.207246 0.012219 0.093103 
-0.172030 0.060816 0.063013 
-0.159436 0.100833 -0.082874 
0.148003 -0.041730 0.182129 
-0.078803 0.063030 0.161452 
-0.077120 0.033075 -0.121077 
-0.025963 0.024485 0.109426 
-0.166690 0.060621 0.186771 
-0.093909 0.024433 -0.029282 
0.094080 0.256397 -0.196502 
0.043470 -0.013668 -0.074982 
-0.070430 -0.038386 -0.136091 
0.114630 0.052878 -0.058335 
0.110300 -0.167743 -0.064625 
0.213475 -0.146789 0.064098 
-0.163573 -0.173094 0.090279 
0.012759 -0.125103 0.209196 
0.078692 0.259097 -0.211264 
-0.218507 -0.007869 0.005631 
-0.168228 0.145127 -0.088978 
-0.212899 -0.013424 0.077591 
-0.107563 -0.166544 0.169415 
-0.153638 0.141719 -0.063257 
-0.050674 0.217511 -0.199962 
0.050653 -0.013664 0.039466 
-0.013278 -0.164138 0.213948 
0.034286 0.069142 -0.131552 
0.037148 0.067393 -0.103168 
0.141186 0.024516 0.162953 
-0.099534 0.067422 -0.083569 
-0.054830 0.090848 -0.116935 
0.061552 0.024508 0.092148 
0.128661 -0.171775 -0.047968 
-0.052010 -0.039286 -0.143100 
0.219976 0.020709 0.059555 
-0.020370 -0.131339 -0.146429 
0.155270 0.241111 -0.169014 
-0.136740 0.024561 -0.013606 
-0.123603 -0.013666 0.013611 
-0.100300 0.182155 -0.144042 
0.132363 0.024533 0.066165 
0.148192 -0.035691 0.204908 
-0.144830 -0.165216 0.111211 
-0.045286 -0.027938 -0.120070 
0.170698 0.228529 -0.186712 
0.059517 0.046643 -0.116668 
0.005325 0.140715 -0.144294 
0.185029 0.009614 -0.042053 
0.198740 -0.029328 0.145123 
0.107540 0.221271 -0.189869 
-0.050923 -0.013683 -0.033235 
0.028902 -0.246908 0.258108 
-0.111866 0.024457 -0.010919 
-0.233284 -0.020811 0.050317 
0.121746 0.149155 -0.121618 
-0.142986 0.038012 -0.062859 
-0.088088 -0.013679 0.081460 
-0.086423 0.090937 -0.099907 
-0.115218 -0.013665 0.208382 
0.242595 -0.237885 0.050206 
-0.176157 -0.204225 0.048899 
-0.037352 -0.008859 0.243038 
0.094680 0.024529 -0.044130 
0.049678 0.212270 -0.188233 
-0.144520 -0.173204 -0.013252 
-0.025377 -0.130053 -0.111340 
-0.127259 0.211269 -0.110880 
0.024373 -0.053398 -0.142006 
-0.121650 0.024512 0.125581 
0.009019 0.024490 0.206795 
0.145878 0.042180 0.151878 
0.137986 -0.013657 0.151821 
-0.008768 0.024480 -0.064811 
0.212166 -0.161490 0.030366 
0.109839 0.226768 -0.224764 
-0.091143 0.197779 -0.108638 
0.169711 -0.013668 0.122006 
-0.149791 0.037955 -0.084732 
-0.146631 0.157699 -0.116390 
-0.024429 -0.052983 0.234538 
0.027240 -0.239372 0.228606 
-0.116948 0.057372 -0.046824 
-0.127298 0.024464 0.000290 
0.171729 0.092662 0.050490 
-0.034227 0.060870 -0.077765 
0.023326 -0.063934 -0.133224 
0.128169 -0.038051 0.217412 
0.177415 -0.021492 0.143383 
-0.122298 -0.013681 0.128524 
-0.155437 0.024522 0.131463 
0.040078 -0.013664 0.029040 
0.014832 0.024493 0.079258 
-0.136609 0.151827 -0.103858 
0.169350 0.036369 -0.064006 
0.195422 0.108595 0.191347 
0.013222 0.063238 0.047228 
-0.077157 0.069894 -0.087493 
-0.229234 -0.074286 0.034056 
0.154455 0.052611 0.155156 
-0.012293 -0.262160 -0.138953 
0.090172 0.048230 0.213082 
-0.011259 -0.205173 0.217946 
0.064848 0.162214 -0.096395 
0.114195 0.023202 -0.109052 
-0.063509 0.044935 0.225680 
-0.214674 -0.038520 0.015738 
-0.231829 -0.258996 0.035163 
0.180365 0.024553 0.059978 
-0.118227 0.258269 -0.195331 
-0.095922 -0.166907 -0.073506 
0.197644 0.096122 0.207209 
-0.011662 0.183848 -0.164686 
-0.098291 -0.173354 0.163560 
-0.123847 0.061162 0.140399 
-0.106550 -0.171125 -0.066823 
0.078494 -0.028138 0.235186 
0.177967 0.009589 0.152454 
0.134380 -0.173199 -0.036200 
0.241060 -0.262099 0.056542 
0.049713 -0.013669 -0.101882 
-0.091649 -0.013678 0.176826 
0.067623 0.063246 0.026492 
-0.170556 -0.013660 0.005877 
0.141976 0.163445 -0.124279 
0.177444 0.024553 0.001296 
-0.006979 0.090928 -0.123755 
0.020169 0.169469 -0.154531 
-0.024283 -0.013670 0.078141 
0.153702 -0.002782 0.179236 
0.224577 -0.039532 0.085162 
-0.137218 0.227310 -0.195681 
-0.088955 0.162244 -0.087046 
0.001435 0.063235 0.056251 
0.107008 0.063164 0.082891 
0.077578 0.024520 0.186574 
0.086023 0.056519 0.198243 
-0.187273 -0.107409 0.057086 
0.147268 0.062367 0.013966 
-0.067335 0.024456 0.213215 
-0.178553 -0.064786 0.036391 
0.076707 0.251027 -0.184883 
0.095299 0.260058 -0.256956 
-0.185034 -0.042575 -0.035932 
0.040523 -0.037668 0.247411 
0.026377 -0.049895 -0.109090 
-0.027166 0.024510 0.053442 
-0.078319 0.063215 0.124631 
0.148940 -0.013660 0.139320 
0.094589 0.262107 -0.236668 
-0.031396 0.145504 -0.099694 
-0.087583 -0.173272 0.171110 
0.095321 0.226310 -0.229094 
0.219217 -0.223622 0.037326 
0.094587 0.063199 0.116079 
0.028138 -0.173051 0.194650 
-0.109466 -0.013669 0.003110 
-0.189130 -0.222083 0.070695 
-0.169191 0.156364 -0.105572 
-0.047104 0.024475 -0.043639 
-0.168587 0.193639 -0.091676 
0.045651 0.063243 0.097926 
0.106276 0.241712 -0.269201 
0.093893 0.024526 -0.012211 
0.081522 0.046706 -0.106461 
0.201817 -0.260699 0.048061 
-0.175727 0.024552 0.009113 
0.151727 0.055860 -0.037393 
0.223767 -0.154849 0.052063 
0.161661 0.097123 -0.078121 
-0.090723 -0.031891 -0.128719 
-0.009442 -0.173466 0.207049 
-0.017634 -0.135053 0.231762 
0.142932 0.214209 -0.160414 
-0.243919 -0.100350 0.048958 
-0.238250 -0.112407 0.046826 
-0.057854 0.024557 -0.114260 
-0.163337 0.227617 -0.207507 
0.008747 -0.109365 -0.112677 
0.072674 0.260588 -0.222187 
-0.024724 -0.037136 0.255448 
-0.213150 0.002225 0.037584 
-0.077184 0.024533 -0.076305 
0.001981 -0.069172 -0.103524 
0.089501 0.062628 -0.023346 
-0.001966 -0.235303 -0.108462 
0.086355 0.012875 -0.115809 
0.189460 0.024527 0.080972 
0.037186 0.063247 0.013139 
-0.163611 -0.166126 0.003777 
0.123301 -0.013658 -0.000570 
0.050998 -0.166223 -0.076613 
0.046833 -0.169129 -0.092681 
0.050886 0.024501 0.137037 
0.029756 0.236229 -0.167390 
0.130474 -0.013669 0.130429 
-0.141823 0.024520 0.124988 
0.184989 -0.116155 0.041638 
0.124727 -0.013681 0.111884 
0.160709 -0.014685 0.024568 
-0.038853 -0.172891 0.186832 
-0.087271 -0.166836 -0.061429 
0.170217 0.061538 0.083770 
0.117817 -0.013672 0.128770 
-0.163366 0.110041 0.112757 
0.099117 -0.013658 -0.018123 
0.160516 0.212008 -0.163038 
-0.214555 -0.232141 0.069173 
-0.120021 0.024535 0.073349 
0.070040 0.024535 0.219955 
-0.180341 0.105546 0.037466 
0.146827 -0.172629 0.110373 
-0.155204 -0.171658 -0.015413 
0.159732 -0.013652 -0.055956 
0.146387 0.138417 -0.072306 
-0.087538 -0.013676 0.102185 
-0.039532 0.044106 0.231619 
-0.177071 0.112416 0.142041 
0.114258 0.024538 0.193882 
0.089629 0.227151 -0.140653 
-0.000628 -0.031875 0.261663 
-0.019597 0.024476 0.159929 
0.201995 0.076251 0.187348 
-0.144200 -0.044295 0.185309 
0.102835 0.019090 -0.112570 
0.107902 0.067270 -0.098063 
-0.186180 -0.004241 -0.037572 
-0.064774 -0.013675 -0.047017 
0.153537 0.229143 -0.242412 
-0.022277 -0.068313 0.208828 
-0.138900 0.194817 -0.108149 
0.097894 0.024532 0.205936 
-0.026022 -0.172721 0.196711 
0.182390 0.093167 0.059842 
0.038566 -0.006154 0.235692 
0.072495 0.062267 -0.040576 
0.066000 0.056325 -0.087744 
-0.048987 0.126087 -0.090331 
-0.193905 0.009650 0.129108 
0.161847 0.110086 0.103829 
0.013606 0.261628 -0.241884 
0.233251 -0.092235 0.021689 
-0.237057 -0.262130 0.059362 
-0.020937 0.067452 -0.119078 
-0.156090 0.118291 -0.070652 
0.020171 -0.013678 -0.116580 
0.129055 0.044127 0.197891 
-0.058176 0.140387 -0.090114 
-0.023080 -0.031454 -0.156135 
-0.087074 0.063161 0.135290 
-0.021769 -0.016990 -0.143036 
0.064620 0.024513 0.182440 
-0.123217 0.225624 -0.227357 
-0.169056 0.029590 0.180739 
0.192081 0.017313 -0.029519 
-0.055870 0.062814 -0.041142 
0.140486 0.032243 -0.084342 
0.150802 0.060787 0.122374 
-0.126770 0.004010 -0.101577 
0.213079 -0.040647 0.014759 
0.168452 0.057776 -0.011722 
0.000616 0.260480 -0.262099 
-0.101894 0.170825 -0.087044 
0.253538 -0.240489 0.047862 
0.136465 0.024534 0.078316 
-0.120118 0.024527 0.090460 
0.187771 -0.039389 -0.067353 
0.195681 0.249360 -0.175431 
-0.155859 -0.013662 0.010834 
0.176264 -0.013683 0.087859 
0.038581 -0.059222 0.213122 
-0.058341 -0.004430 -0.124070 
-0.070727 0.215553 -0.190796 
-0.108337 0.024534 0.064879 
0.030186 -0.013669 0.068234 
-0.199031 -0.013398 -0.003014 
0.110262 0.169963 -0.093351 
0.134326 -0.026766 -0.105218 
0.075714 0.024515 0.157067 
0.059786 0.188547 -0.160319 
0.012726 -0.053523 -0.095884 
0.175511 -0.169107 0.049725 
-0.063437 -0.038782 0.245409 
-0.085069 0.179117 -0.097626 
0.236037 -0.125335 0.044364 
0.142920 0.004918 -0.091824 
-0.015298 -0.013674 -0.018368 
0.201403 0.252192 -0.188720 
0.089690 -0.001216 0.218663 
-0.170578 -0.049015 0.033767 
-0.216669 -0.024334 0.097538 
0.147703 0.252940 -0.184308 
0.153718 -0.050843 -0.075929 
-0.185206 0.182541 -0.117313 
-0.220454 -0.069643 0.083837 
-0.170973 -0.051594 0.177241 
0.062307 0.007316 -0.128820 
0.019776 0.025499 -0.131285 
0.020981 -0.073180 -0.149407 
-0.059784 -0.013670 -0.084467 
-0.039458 0.201344 -0.175986 
0.162833 0.087026 0.117510 
-0.154306 -0.010566 -0.090341 
-0.179587 0.091841 0.025070 
-0.061591 0.220122 -0.204240 
-0.162901 0.111608 0.129787 
0.126036 -0.034825 -0.113376 
0.212752 -0.262097 0.044415 
0.156425 -0.166576 0.074496 
-0.079050 0.207650 -0.176032 
-0.151638 0.103940 -0.064937 
-0.192572 0.214224 -0.123639 
-0.133786 0.063059 0.100722 
0.096761 -0.013657 -0.041093 
0.170808 0.060784 0.035303 
0.119153 -0.014166 -0.091928 
-0.041603 -0.013673 0.043219 
-0.080152 0.260270 -0.256203 
-0.118786 -0.013677 0.065942 
0.174062 0.080110 0.169382 
-0.103857 0.248537 -0.170889 
0.218482 -0.167209 0.052121 
0.059081 0.063247 0.101197 
-0.145733 -0.013672 0.075446 
0.010816 -0.161486 -0.105297 
-0.146155 -0.029367 0.180351 
0.048070 0.079458 -0.098190 
-0.045759 -0.173438 -0.083714 
-0.232727 -0.024775 0.079971 
-0.215288 -0.038468 0.103444 
0.054210 0.061836 -0.055594 
-0.147133 0.029852 0.193154 
0.043176 -0.086592 0.238913 
0.026994 0.024525 -0.026544 
0.112203 0.233350 -0.142981 
0.221919 -0.014242 0.035014 
0.081975 0.242091 -0.164351 
-0.175413 0.172473 -0.096291 
-0.181712 -0.146312 0.068015 
-0.199694 0.043124 0.117226 
0.254741 -0.260852 0.050765 
-0.116023 0.060530 -0.035917 
-0.196781 -0.016243 -0.029522 
0.009047 -0.098329 -0.113650 
0.008859 -0.100718 -0.154363 
-0.192681 0.049674 -0.003083 
-0.035425 0.063171 -0.022114 
-0.026048 -0.252045 -0.123168 
-0.023037 0.077728 -0.135421 
-0.096633 0.024472 -0.015334 
0.058847 -0.013681 0.114295 
-0.021959 -0.100838 0.232761 
-0.030560 -0.013681 -0.040009 
-0.233717 0.249471 -0.213557 
-0.072724 0.141118 -0.084475 
0.015865 0.024503 -0.072117 
0.138690 -0.013653 -0.060355 
-0.153649 -0.013656 -0.041846 
0.003566 0.212954 -0.196121 
-0.118715 0.067581 -0.094801 
-0.080423 -0.013682 0.152705 
-0.191167 -0.209262 0.044012 
0.113519 0.114402 -0.112348 
-0.160351 0.250642 -0.165807 
0.201771 -0.132814 0.065988 
0.067439 0.262007 -0.240756 
-0.166458 -0.013659 -0.004683 
0.169860 0.248460 -0.251730 
0.125230 0.063094 0.101180 
0.187563 0.045939 0.132978 
0.197600 -0.017310 0.010902 
-0.034960 0.024501 0.080337 
0.115807 0.042260 -0.064563 
-0.051923 0.103570 -0.091951 
-0.118716 0.084794 -0.102370 
-0.025545 -0.050610 -0.093434 
0.000482 -0.235195 0.216530 
-0.101824 0.060856 -0.039921 
0.169423 -0.048238 0.049844 
-0.004984 0.090696 -0.106914 
-0.062218 -0.013675 0.065613 
0.028753 0.024499 0.060515 
0.218669 0.020482 0.030252 
0.113395 0.062650 0.133149 
-0.091094 0.257965 -0.263811 
0.126761 -0.173282 0.146138 
0.011465 -0.142500 -0.137764 
0.084622 -0.013666 0.174565 
0.020289 -0.133237 0.211272 
-0.031141 -0.005653 0.233970 
-0.016930 0.024478 0.145490 
-0.129270 0.261200 -0.243195 
-0.152885 0.254694 -0.173555 
-0.206361 -0.003620 0.008085 
0.043724 0.063195 -0.013279 
-0.184741 0.050710 0.128741 
0.001832 -0.013671 -0.019977 
0.124705 0.260755 -0.210974 
-0.187156 0.206441 -0.113144 
0.092844 0.099424 -0.115860 
0.128904 0.226881 -0.222360 
-0.191095 -0.186660 0.074446 
-0.038829 0.063239 0.026915 
-0.144759 0.065733 -0.060507 
-0.039378 0.222323 -0.215396 
0.052993 -0.039626 0.244791 
0.171955 0.022033 -0.064874 
0.182711 0.105616 0.033497 
-0.038301 0.057225 0.208957 
-0.174348 0.183068 -0.090884 
-0.002456 -0.039268 0.194060 
0.000337 -0.009000 -0.141803 
-0.002696 0.067394 -0.120951 
-0.211127 0.023184 0.001248 
0.152646 -0.166754 0.088454 
0.185590 -0.197352 0.060344 
-0.150206 0.212600 -0.153847 
-0.222585 -0.027329 0.028969 
-0.048420 0.077144 -0.098350 
-0.194597 -0.225759 0.040938 
0.090303 -0.044351 -0.117157 
-0.191253 -0.051514 -0.061654 
-0.025169 0.185640 -0.165251 
0.098061 0.063228 0.041621 
0.007267 -0.085352 -0.112878 
0.179737 0.202941 -0.144156 
-0.233813 -0.124681 0.047942 
0.114343 -0.013642 0.198530 
-0.169019 0.092330 -0.033286 
-0.037625 0.024546 -0.126066 
-0.019821 -0.074183 0.258949 
-0.103568 0.024476 0.205565 
-0.050092 0.216448 -0.137515 
-0.026011 0.015513 -0.129841 
-0.225646 -0.254217 0.091955 
-0.214282 -0.006614 0.092010 
-0.172712 -0.057266 0.066335 
0.188349 -0.064381 0.019599 
-0.169760 0.077807 0.115458 
-0.097245 -0.172646 -0.058621 
0.230245 -0.021930 0.069902 
-0.153651 0.065838 -0.080725 
-0.118649 -0.031514 -0.095511 
-0.095619 0.024550 0.018143 
0.134970 0.226042 -0.234217 
-0.142947 0.215455 -0.162318 
-0.051439 0.024478 0.148022 
0.066232 0.132779 -0.085821 
0.128534 -0.000954 -0.094679 
0.158245 -0.041907 0.200584 
-0.085124 0.117828 -0.077084 
-0.024630 -0.161035 -0.106618 
-0.033020 -0.261077 -0.144834 
-0.161573 0.094250 -0.007671 
-0.152391 0.052850 -0.084665 
-0.036674 -0.039566 0.248465 
-0.008521 -0.013676 0.188806 
-0.018771 0.063236 0.043460 
-0.196300 0.052890 0.022357 
-0.014606 -0.262127 -0.159381 
0.044296 0.063142 0.159968 
-0.072248 0.024390 -0.055539 
0.217114 -0.238335 0.020712 
0.130587 -0.013664 0.177395 
-0.114437 0.024545 0.044932 
-0.244417 -0.041928 0.036433 
-0.080096 -0.013658 0.222561 
-0.012776 -0.106139 -0.108861 
0.025401 -0.034642 -0.124724 
-0.067870 0.260548 -0.256313 
0.102501 -0.014687 -0.100968 
0.208877 -0.244319 0.027748 
-0.167091 0.024557 0.016768 
-0.137858 0.062987 0.072490 
-0.034210 -0.067758 -0.159535 
-0.013003 -0.147860 -0.143063 
-0.082031 0.024544 0.020137 
0.137880 0.024541 -0.011013 
0.012219 -0.205024 -0.115875 
-0.153093 0.106471 0.096379 
0.187376 0.058119 0.178552 
-0.129008 -0.028991 -0.107066 
0.050531 0.063246 0.136880 
-0.107370 0.043192 -0.069637 
-0.062599 0.024460 0.198061 
0.073541 -0.029021 0.218273 
-0.177163 0.024555 0.040176 
0.223266 -0.143760 0.059287 
-0.159699 0.095018 0.134824 
-0.207868 -0.039712 0.093921 
-0.092591 0.018760 -0.116284 
0.070880 0.063249 0.080592 
-0.066463 0.197108 -0.116528 
0.037831 -0.093910 0.231752 
-0.022237 -0.102055 -0.113468 
0.180016 0.024546 -0.030220 
-0.039981 0.222049 -0.147082 
-0.074388 0.045985 -0.112321 
-0.170960 0.082777 0.215034 
0.178674 0.038882 0.154167 
0.185957 -0.043242 0.139488 
0.074055 -0.013660 -0.009213 
0.000737 0.024516 0.016945 
-0.028058 0.220521 -0.148141 
0.092090 0.039254 0.220723 
-0.006300 0.046500 0.231752 
-0.096553 0.024520 -0.000258 
-0.095307 0.226617 -0.136842 
0.152301 0.141103 -0.087787 
-0.180145 0.091930 -0.023677 
-0.177221 0.024545 -0.022690 
0.050240 0.024509 0.026417 
0.209539 0.097122 0.204343 
-0.137806 0.041349 0.153023 
0.018495 -0.172795 -0.092868 
0.090516 -0.013668 0.050615 
-0.039613 -0.006128 -0.131454 
-0.151235 0.023297 -0.083909 
-0.048117 0.139839 -0.137275 
0.013545 -0.154051 -0.128937 
0.038962 0.024500 0.097508 
0.160485 0.184994 -0.094598 
0.242444 -0.094679 0.029426 
0.194922 0.018655 0.133157 
-0.038446 -0.055350 -0.107525 
-0.023427 -0.176181 -0.126451 
0.027474 0.194912 -0.122169 
-0.137894 0.229009 -0.128194 
0.023335 0.063193 -0.014026 
0.041950 -0.013674 -0.124325 
0.135420 0.145032 -0.076717 
0.068130 0.024513 0.056070 
0.206925 -0.047389 0.151708 
0.007785 0.153889 -0.147937 
-0.029945 0.063242 0.017848 
0.192170 0.024556 0.034203 
-0.204183 -0.218596 0.044327 
-0.040228 0.050880 -0.114651 
-0.020366 0.063240 0.027107 
0.081930 0.191791 -0.157915 
-0.006899 -0.035383 -0.089179 
-0.214057 -0.240559 0.032352 
-0.144013 0.058525 -0.090172 
0.179977 -0.023680 0.168813 
0.144810 0.075738 -0.094806 
0.152004 0.024545 0.102503 
-0.068575 0.243546 -0.276331 
-0.222626 -0.036059 0.087226 
-0.035300 -0.013681 0.135242 
0.201214 -0.031326 -0.040777 
0.222074 -0.124066 0.066180 
-0.183317 0.106514 -0.020644 
0.148227 -0.013661 0.005422 
-0.016719 0.062216 -0.069103 
0.166413 -0.038630 0.062354 
0.187855 -0.071463 0.071260 
0.047511 0.063245 0.022611 
0.128146 0.110006 -0.068308 
-0.218516 -0.126630 0.037580 
0.043912 0.063240 0.004248 
0.071832 0.215367 -0.189002 
0.074882 -0.006737 0.230614 
0.101494 -0.013657 -0.030188 
0.042246 0.063242 0.077243 
0.172273 0.024553 -0.020430 
0.152192 -0.053895 -0.087271 
0.033434 0.257933 -0.269847 
0.178141 -0.189106 0.056989 
-0.015613 -0.013677 0.116361 
0.052476 -0.013677 0.097391 
0.063047 -0.038666 -0.141549 
-0.095305 0.237148 -0.152802 
-0.103994 -0.031809 -0.122631 
0.112793 0.113299 -0.095339 
-0.181743 0.024543 0.135033 
0.026086 -0.021274 0.250779 
-0.063634 -0.038041 0.223072 
-0.094580 0.131583 -0.120359 
0.014164 0.206247 -0.184567 
0.163729 0.097702 0.128844 
-0.108820 0.219369 -0.187575 
0.096574 0.253534 -0.185686 
-0.118665 0.256950 -0.259901 
0.005023 0.044017 -0.128492 
0.135356 0.063033 0.045141 
0.156527 0.024549 0.115725 
0.100416 -0.013665 0.143942 
0.193434 -0.018583 0.109184 
0.088224 0.093181 -0.085990 
-0.179746 0.003824 -0.054480 
-0.039273 -0.083729 -0.146983 
0.050903 0.107559 -0.090931 
-0.138554 -0.013659 -0.030782 
0.005550 -0.013675 -0.062578 
-0.121054 -0.173308 -0.048124 
0.245697 -0.052231 0.021332 
0.018360 -0.072133 -0.105956 
-0.222199 -0.260473 0.080289 
0.182263 0.100509 -0.044353 
0.042971 0.221270 -0.144710 
-0.215302 -0.131012 0.078286 
-0.034919 -0.013676 0.115036 
-0.020502 0.107207 -0.098777 
-0.119513 -0.013684 0.100639 
0.099189 -0.025740 -0.104979 
0.013009 -0.120042 -0.114562 
-0.123986 -0.033276 0.216457 
0.050462 0.074376 -0.128518 
0.167338 -0.013661 0.000689 
0.167162 0.024546 0.050374 
0.041995 0.205628 -0.180311 
0.115978 0.061644 -0.028798 
-0.075774 0.198746 -0.164987 
0.037594 -0.164939 -0.087640 
-0.083026 -0.042609 0.234078 
-0.153200 0.231240 -0.137277 
-0.108513 0.024522 0.093026 
0.162416 0.257327 -0.243800 
0.110912 -0.049195 -0.105700 
0.101805 0.180027 -0.096869 
0.251006 -0.053153 0.031844 
0.067937 0.079138 -0.092280 
-0.158847 0.105590 0.036624 
-0.129831 0.244813 -0.153401 
0.126782 -0.013662 0.011644 
0.020392 0.061123 -0.079641 
-0.149064 0.024548 0.066427 
0.139336 -0.013657 -0.012139 
-0.009258 -0.166968 -0.136140 
-0.023085 0.063228 0.080772 
-0.012794 -0.071251 -0.104238 
-0.095415 0.063231 0.046200 
-0.183455 0.234213 -0.239563 
-0.020356 -0.013674 -0.006803 
-0.181496 -0.015569 -0.030014 
-0.049081 0.150676 -0.140509 
-0.205303 0.047454 0.085408 
-0.147967 0.059774 -0.069298 
0.149527 -0.013657 0.152765 
0.051106 -0.013673 0.192888 
0.104210 -0.013681 0.117717 
-0.057335 0.228574 -0.151780 
0.120551 0.024534 0.003183 
-0.148824 0.053239 0.203966 
0.067941 -0.016096 0.216370 
0.005628 0.105906 -0.100337 
-0.082078 -0.013674 -0.023545 
-0.064153 0.024508 0.088776 
-0.256425 -0.257397 0.065801 
-0.102323 0.102571 -0.111794 
0.079941 0.063251 0.087893 
0.213808 -0.182988 0.044695 
0.152937 0.028684 0.180940 
-0.204844 -0.013651 0.119615 
-0.148478 0.046820 -0.057030 
-0.163715 -0.013675 0.115499 
-0.200533 0.046171 0.106536 
-0.173098 -0.021553 0.170869 
-0.113016 -0.013681 0.111598 
-0.018958 0.043788 -0.128088 
0.154000 0.062653 0.103246 
0.024342 0.024510 0.010531 
0.120938 -0.001561 0.203426 
-0.062420 0.063236 0.004128 
-0.017112 -0.013676 0.157623 
-0.019304 -0.079249 0.233732 
-0.001066 0.024436 -0.082952 
-0.169460 0.108498 -0.054947 
-0.175467 -0.209532 0.060699 
-0.043495 0.253004 -0.198944 
-0.025843 -0.047824 -0.161163 
0.002172 -0.172032 -0.095829 
-0.014297 0.024481 0.110380 
-0.211348 -0.041387 0.029536 
-0.191107 0.013242 -0.028572 
0.108232 0.024532 -0.021914 
-0.004972 -0.221425 0.209388 
-0.012654 0.024478 0.193044 
-0.013487 0.024533 -0.011249 
0.148635 0.024540 0.077904 
-0.229939 -0.140888 0.061528 
-0.023686 0.191995 -0.122459 
0.036960 -0.013673 0.082032 
-0.058785 0.024518 0.060411 
0.088174 0.192804 -0.107273 
-0.193153 0.095619 -0.009985 
0.101337 0.036906 -0.090119 
0.184444 0.024556 -0.007370 
0.046448 0.016113 0.230911 
0.016782 -0.013666 0.048195 
-0.098853 0.024491 0.156673 
0.099107 -0.013663 0.025948 
-0.156677 0.105500 0.052263 
-0.150783 -0.034722 -0.096481 
0.007730 0.161469 -0.108367 
0.066491 0.024517 -0.015142 
-0.006230 0.258085 -0.219695 
0.195350 -0.187119 0.029227 
-0.051004 0.024533 -0.128434 
-0.245022 -0.262121 0.049626 
0.177067 -0.008211 0.172266 
0.163057 0.062166 0.096743 
0.218893 -0.218032 0.047299 
0.151746 0.044845 -0.065145 
0.193627 0.232206 -0.217637 
0.103800 0.186299 -0.147530 
0.190969 -0.025540 0.152620 
-0.177441 -0.036400 0.148293 
-0.048364 0.191585 -0.116264 
0.079012 0.167576 -0.141616 
0.189045 0.103457 -0.012509 
-0.133707 -0.020527 0.187582 
0.101220 0.024521 0.096832 
-0.218729 0.005284 0.060028 
-0.002185 -0.110806 0.258540 
-0.111100 -0.013674 0.035211 
-0.004990 0.112344 -0.139834 
-0.008656 -0.218181 0.227903 
-0.126690 -0.019709 -0.088037 
-0.173287 0.024553 0.073621 
0.167259 -0.173363 0.074390 
0.004374 -0.158398 0.203377 
-0.223077 -0.012842 0.070554 
-0.191418 0.200294 -0.124845 
0.168489 0.178958 -0.117801 
-0.019670 0.254060 -0.204548 
0.124067 -0.013660 0.158552 
-0.167938 0.106730 -0.018335 
-0.190738 0.247125 -0.162795 
-0.119936 0.063109 0.106807 
-0.167796 0.031834 0.167628 
-0.143790 0.046801 0.178960 
0.035097 -0.110273 0.240394 
-0.157778 0.061921 0.034877 
-0.007405 -0.125364 0.214273 
-0.019548 -0.165072 0.190817 
-0.180576 0.236753 -0.181406 
-0.014452 -0.233064 0.228540 
0.049493 -0.013661 -0.005471 
0.132339 0.248556 -0.264650 
0.160132 0.098523 0.106373 
-0.196401 0.051707 0.097902 
0.145809 -0.032198 -0.099653 
-0.140247 -0.013674 0.091234 
0.018397 -0.013670 0.075645 
-0.219647 -0.014561 0.031094 
0.164731 0.024548 0.018358 
-0.220576 -0.007446 0.021973 
0.147735 0.039638 -0.078785 
0.168443 0.008497 -0.067565 
-0.209857 -0.183933 0.066354 
-0.028878 -0.013669 0.058030 
-0.157762 0.109918 -0.054540 
0.107074 0.155604 -0.125964 
-0.093905 0.048331 -0.096831 
-0.008167 -0.013546 0.236975 
0.078181 0.024522 -0.032766 
-0.168226 -0.040284 -0.088247 
-0.003665 0.024498 0.062119 
0.186607 0.064031 0.163554 
0.041089 0.063240 0.050804 
-0.017471 -0.121991 0.224474 
-0.004568 -0.168157 0.187189 
0.013332 -0.034953 -0.089833 
0.113617 0.217561 -0.123253 
-0.024366 0.024426 -0.072521 
0.103615 -0.013654 -0.078273 
0.168869 0.254167 -0.218223 
0.155286 -0.013658 -0.012351 
-0.118268 0.185689 -0.140911 
0.025010 -0.170557 0.209852 
0.041632 -0.013663 0.013398 
0.023493 0.067400 -0.125535 
0.126352 0.009580 -0.097233 
-0.116443 -0.170388 0.163619 
-0.052555 -0.013677 -0.060926 
0.222004 -0.234676 0.054824 
-0.184572 0.093837 0.086008 
0.200504 0.110884 0.141121 
0.036734 0.230344 -0.273004 
-0.172274 0.229358 -0.235371 
-0.160653 0.229736 -0.241328 
-0.177441 0.110830 0.118597 
0.021631 -0.145648 0.209537 
0.006500 -0.013679 0.117945 
0.010151 -0.035535 0.192803 
0.113316 -0.013667 0.040258 
-0.161772 0.024529 0.119855 
-0.201054 -0.013718 0.046055 
-0.188720 -0.013450 0.152156 
-0.125021 0.211687 -0.164838 
0.040150 -0.043200 0.210610 
-0.038537 -0.021512 -0.090998 
0.003490 0.024530 -0.017138 
-0.150704 0.062892 0.170357 
0.007003 -0.013669 0.073795 
-0.125140 -0.013673 0.054506 
-0.071885 -0.013668 -0.074582 
-0.172010 0.024560 0.026825 
0.160105 0.024547 0.007655 
-0.095472 0.067474 -0.094567 
0.206177 -0.005784 -0.001810 
-0.229797 -0.083521 0.082160 
-0.023327 -0.148506 -0.137114 
0.033373 -0.040109 -0.130107 
-0.006484 -0.013677 -0.056461 
0.194966 0.232545 -0.178731 
0.171824 0.188345 -0.124124 
0.091408 0.024526 -0.025663 
-0.104305 0.040369 -0.102532 
0.086562 -0.013663 0.161690 
0.077467 -0.167402 -0.066807 
-0.219468 -0.032485 -0.006247 
-0.143105 0.024504 0.022102 
0.091701 0.169285 -0.091866 
0.039364 -0.046557 0.197383 
-0.010349 -0.013668 0.025466 
0.110376 -0.164820 0.161244 
0.128984 -0.049428 0.203860 
-0.147470 0.105274 -0.095676 
0.101476 0.196856 -0.157448 
-0.068839 0.067386 -0.094807 
0.229187 -0.239945 0.031698 
0.034148 0.241663 -0.280640 
-0.034151 0.063221 -0.002192 
-0.214331 0.022163 0.091150 
-0.078942 0.253641 -0.271489 
0.037294 0.062801 -0.047459 
0.048955 0.024501 0.120462 
-0.046295 -0.013678 0.128639 
-0.137291 0.249241 -0.160640 
0.173845 0.052836 -0.025307 
0.179575 -0.226168 0.044740 
-0.196799 -0.125111 0.037945 
0.087566 -0.013658 -0.083739 
-0.081683 0.058674 -0.066699 
-0.000823 -0.200695 0.201897 
-0.110003 0.160275 -0.081325 
-0.028938 -0.013670 0.041137 
-0.116074 0.030913 -0.061870 
0.018599 0.063245 0.014592 
-0.120514 -0.035393 -0.115954 
-0.052962 0.024461 0.210047 
0.109756 0.190803 -0.102756 
0.187705 0.105745 0.007941 
0.051317 0.024510 0.013556 
0.130251 -0.172576 0.133417 
0.010314 -0.219742 -0.115539 
0.200181 0.024542 0.066342 
0.007573 -0.242603 0.274717 
-0.081243 0.024488 -0.063770 
0.129570 0.025072 -0.060839 
0.011617 0.024536 -0.039114 
0.157960 0.234461 -0.181541 
0.040859 -0.034581 0.219164 
0.131698 -0.035938 -0.089375 
-0.071105 0.259047 -0.213763 
0.029471 -0.139234 0.238604 
0.090507 0.154036 -0.130656 
0.211476 -0.158386 0.062466 
-0.058756 0.024526 0.043199 
-0.090959 0.096530 -0.115920 
0.063160 0.090028 -0.095006 
-0.168957 0.061295 0.095825 
0.077431 0.003794 0.226878 
0.039434 0.024501 0.082128 
-0.051642 0.168599 -0.148675 
-0.173546 0.256479 -0.190912 
0.225481 -0.074264 0.069684 
0.052997 0.223148 -0.213748 
-0.197402 -0.186837 0.041793 
0.017360 -0.250906 0.223316 
0.027090 -0.034074 -0.090781 
0.152247 0.051231 0.141560 
0.017339 -0.243795 0.265485 
0.193167 0.056152 0.069760 
0.017392 -0.260136 -0.137980 
-0.170964 0.094804 0.103383 
-0.123188 0.249352 -0.165589 
0.058466 0.024518 -0.035751 
-0.111946 0.113349 -0.077294 
0.125505 0.024520 0.186566 
-0.142333 0.056951 -0.034512 
0.175828 0.092081 0.032542 
0.097452 -0.013680 0.095855 
-0.252045 -0.067679 0.065700 
-0.033935 0.142269 -0.141490 
0.175226 0.091969 -0.041102 
0.167357 0.106980 0.064300 
-0.001031 -0.016074 0.247062 
0.114763 0.229298 -0.214485 
-0.052754 0.251695 -0.277368 
-0.149272 -0.169260 0.096328 
0.072548 0.046261 0.221313 
0.013955 -0.013677 0.105547 
-0.143994 0.037941 0.203308 
0.022664 -0.110723 0.256658 
-0.200416 0.086627 0.198531 
0.200501 -0.208155 0.031871 
-0.174688 0.081418 0.166728 
0.178487 0.082994 0.106555 
-0.068494 0.024560 -0.091290 
-0.012617 0.248990 -0.193982 
-0.094262 0.028149 0.219215 
0.186369 -0.105294 0.043955 
0.008626 -0.013490 0.240781 
-0.176658 -0.178474 0.066965 
0.064698 0.160198 -0.140927 
0.203943 0.024548 0.052950 
-0.220159 0.233405 -0.208479 
0.016351 -0.013665 0.000193 
0.006051 -0.204465 -0.102762 
0.026484 0.024438 -0.098702 
0.122430 -0.013661 0.145722 
-0.031807 0.241560 -0.177638 
0.173857 -0.027774 0.181518 
-0.035242 -0.021019 0.239244 
-0.156191 -0.025629 0.169875 
0.033209 0.181684 -0.159774 
-0.052868 0.024509 0.077382 
-0.171760 0.228588 -0.175056 
-0.171962 0.092566 -0.062417 
0.114747 0.182950 -0.141626 
0.120752 0.140007 -0.106475 
-0.200627 -0.004195 -0.010297 
0.009469 0.195809 -0.173656 
-0.029795 0.024473 0.155220 
-0.181290 -0.056989 0.084662 
-0.142699 0.062534 0.017994 
0.126870 0.024541 -0.072235 
-0.131754 0.256961 -0.185578 
-0.036226 -0.073050 -0.129182 
0.051527 0.024506 0.177071 
-0.169570 0.259922 -0.203984 
-0.023409 -0.199846 -0.110696 
-0.143842 0.192755 -0.135178 
-0.104899 0.024433 -0.022693 
-0.223610 -0.014515 0.051904 
0.136793 0.240088 -0.154373 
0.161729 0.223794 -0.180130 
-0.160276 0.200991 -0.101946 
0.109429 0.225442 -0.201788 
-0.154731 -0.053870 0.196304 
-0.081888 0.056852 0.198979 
-0.171085 -0.013786 0.076462 
-0.145255 0.235042 -0.254762 
-0.115884 0.049222 0.198890 
0.051242 -0.000571 0.230365 
0.116992 0.024534 -0.013944 
-0.022357 -0.113678 -0.112391 
0.200486 0.082789 0.150838 
-0.140198 -0.018520 0.197963 
-0.033930 0.024495 0.094304 
-0.153553 0.102335 0.082808 
0.028717 -0.122224 0.218546 
-0.119875 0.024496 0.200724 
0.190518 0.255408 -0.215529 
0.180747 0.231766 -0.220529 
0.070360 0.062727 -0.027915 
-0.121400 0.228122 -0.214748 
0.197897 0.253424 -0.223647 
0.074093 0.202149 -0.118230 
0.144652 0.179471 -0.135275 
0.013268 -0.051498 0.268205 
0.147070 0.127065 -0.078388 
0.213635 -0.026882 0.114816 
0.212915 0.035775 0.015889 
0.053574 0.154543 -0.096781 
0.153846 0.203922 -0.155203 
-0.189477 -0.080322 0.053353 
0.173096 0.237750 -0.240874 
0.170163 0.105534 0.031562 
0.184334 -0.074089 0.024100 
-0.057944 0.024543 0.001903 
-0.000886 0.204516 -0.132631 
-0.154414 0.069831 0.158660 
-0.208177 0.003523 -0.002144 
-0.004636 0.238477 -0.282018 
0.065325 -0.165522 -0.085243 
-0.139898 -0.050601 -0.103367 
0.176279 0.024539 -0.042347 
0.009429 0.000975 -0.132013 
0.156145 0.254344 -0.198136 
0.081696 0.209378 -0.176090 
0.112424 0.123471 -0.084763 
-0.179387 -0.222590 0.052193 
-0.233157 -0.236315 0.064657 
0.025448 -0.093006 0.219502 
0.033606 0.024519 -0.017047 
0.168482 -0.023445 -0.052221 
-0.187266 0.024545 0.104740 
0.193340 -0.093548 0.031964 
0.084307 0.024527 -0.068728 
0.106674 0.108128 -0.077265 
-0.196774 -0.031384 -0.005345 
-0.171040 0.105472 0.027726 
0.053478 0.063243 0.051592 
-0.216930 -0.035471 -0.017879 
0.057622 0.016981 0.228128 
-0.016271 -0.022724 -0.086971 
0.116662 -0.038614 -0.098870 
-0.112775 -0.013679 0.140903 
0.142218 0.226651 -0.224752 
-0.140361 0.026159 -0.062078 
-0.106094 0.024502 0.137658 
-0.198979 -0.037694 0.104933 
-0.054528 0.081290 -0.128909 
0.083495 0.060755 0.184072 
0.161684 0.161564 -0.105153 
-0.199971 -0.038350 0.153161 
0.142201 0.249886 -0.173858 
-0.097340 0.210280 -0.117219 
-0.007035 0.019432 0.238393 
0.086383 -0.026417 -0.126791 
-0.116218 -0.013680 0.177357 
-0.188439 0.255734 -0.234951 
0.163846 -0.021349 0.073741 
-0.115786 0.236246 -0.144399 
0.083810 0.090891 -0.114323 
0.221815 -0.013878 0.062942 
-0.053801 -0.013676 0.119344 
0.190553 0.102478 0.093237 
-0.107939 0.006714 -0.112724 
0.075312 0.024522 -0.050402 
-0.153488 0.206291 -0.126217 
0.024281 0.024492 0.137279 
-0.036022 -0.013681 0.217480 
0.137952 0.261333 -0.227386 
-0.177791 -0.158859 0.049192 
0.062272 0.062678 0.172980 
-0.149786 0.024538 0.089590 
0.224372 -0.009376 0.079654 
-0.064151 0.060251 -0.068410 
-0.055131 -0.171156 -0.090516 
0.058119 -0.038666 0.234102 
0.065731 0.255786 -0.202023 
-0.052074 0.195361 -0.167348 
0.053269 0.063246 0.120666 
-0.086753 -0.013670 -0.035883 
0.119733 0.201361 -0.155059 
-0.148415 0.183953 -0.091685 
-0.125742 0.225342 -0.195141 
-0.071604 0.056344 0.204580 
-0.170010 0.058310 -0.002374 
0.141987 0.170824 -0.088721 
-0.179062 0.024948 0.157594 
-0.149888 0.027341 -0.073718 
0.211147 -0.006115 0.085085 
-0.190186 -0.019849 0.085937 
-0.214382 0.028617 0.074043 
-0.069272 0.191117 -0.160396 
-0.147275 0.259700 -0.195114 
0.003826 -0.220208 0.239441 
0.171302 0.101978 -0.066737 
-0.041298 0.190448 -0.165470 
-0.131299 -0.013666 0.021778 
-0.062762 -0.013674 0.103903 
0.135160 0.024537 0.030422 
-0.127188 0.063081 0.032895 
-0.021670 -0.262131 -0.145473 
0.163902 0.024535 -0.056739 
0.024658 -0.048320 -0.094756 
0.113214 0.157562 -0.094975 
-0.171144 0.251299 -0.176889 
-0.024123 0.179294 -0.114446 
0.051433 0.024521 0.222776 
-0.181908 0.112509 0.185437 
0.035055 0.135152 -0.138725 
-0.059995 0.063199 0.134733 
-0.066235 0.037048 -0.122721 
-0.158847 -0.053926 -0.076684 
-0.187413 -0.153424 0.040942 
-0.185361 0.106852 -0.034573 
-0.002968 0.223985 -0.251240 
-0.026326 -0.035634 0.221470 
-0.157709 0.048868 0.149916 
-0.179645 0.227843 -0.222896 
0.081881 0.172179 -0.096186 
-0.194304 -0.047110 0.171872 
-0.158506 0.259620 -0.195809 
-0.176371 0.071268 0.124353 
0.004629 -0.013683 -0.125444 
-0.027494 -0.013679 0.127250 
-0.107774 -0.013672 0.014243 
0.208439 0.047537 0.051495 
0.177200 0.013154 -0.050123 
0.138180 -0.013683 0.100969 
-0.205690 -0.198133 0.071266 
-0.140905 -0.013666 0.027323 
0.054436 0.063244 0.065490 
-0.112033 0.024529 -0.033757 
-0.016889 0.219667 -0.148546 
-0.210945 -0.038995 0.001154 
0.050631 -0.172822 0.190927 
0.180229 -0.013669 0.116508 
0.023089 -0.204164 0.227676 
-0.076771 0.024480 0.162690 
-0.183319 -0.029986 0.135817 
0.001091 -0.013668 -0.000721 
-0.040885 0.179424 -0.157340 
0.249556 -0.083189 0.032504 
-0.188190 -0.078207 0.079889 
0.209555 -0.042359 -0.032378 
-0.114502 0.261412 -0.242077 
0.054057 0.054546 -0.100793 
-0.127325 -0.013664 0.001865 
-0.136428 0.027329 0.182291 
-0.187197 0.091950 -0.033449 
-0.020231 0.138794 -0.099862 
-0.001570 -0.104336 -0.157888 
-0.009917 0.063233 0.060777 
0.008435 0.063019 -0.050582 
0.220421 -0.258574 0.023057 
-0.055503 0.185467 -0.110125 
0.183264 0.108103 0.078882 
0.171244 0.108620 0.085509 
0.131939 0.036886 -0.065588 
0.204234 -0.035450 0.074489 
-0.093589 -0.013679 0.092527 
0.015529 -0.256340 0.273751 
-0.144215 0.052460 0.149212 
0.167050 -0.033455 0.017854 
-0.121320 0.024542 -0.070575 
-0.236815 -0.035378 0.085448 
-0.049724 0.055949 0.210988 
0.030565 -0.262113 0.244712 
-0.106720 0.192816 -0.150449 
0.097308 0.109685 -0.115444 
0.075496 0.024517 0.173244 
0.089647 0.024528 -0.055425 
-0.154169 0.079023 -0.077612 
0.021101 0.024539 -0.052916 
0.220520 -0.096652 0.070998 
-0.019636 0.063229 0.118140 
0.148315 0.147677 -0.113356 
0.098949 0.191881 -0.104868 
-0.168981 0.235598 -0.246996 
0.232719 -0.251142 0.078388 
-0.028235 -0.079821 -0.158946 
0.190188 0.051918 0.116287 
-0.061819 0.132320 -0.131966 
-0.049381 0.169610 -0.103872 
-0.150469 -0.050106 -0.109697 
0.196856 -0.013677 0.060873 
-0.048048 0.063225 -0.000467 
-0.128848 -0.036380 -0.090415 
0.125492 0.229487 -0.211907 
-0.099570 0.120324 -0.074111 
-0.007981 -0.082134 -0.161179 
0.025423 0.024498 0.207049 
0.197355 -0.185245 0.062808 
0.096427 -0.022383 0.224601 
0.138547 0.062837 0.026221 
-0.091021 -0.013677 0.125924 
0.157501 -0.167371 0.117408 
0.187164 0.024521 0.123571 
0.007339 -0.124235 -0.147377 
0.001388 0.234415 -0.168969 
-0.219895 0.242276 -0.179161 
0.104179 -0.173231 -0.052536 
-0.170618 0.043240 -0.050804 
0.133818 0.082397 -0.060597 
-0.067564 0.214401 -0.130972 
-0.039969 0.261425 -0.237922 
-0.138380 0.124747 -0.063462 
0.107085 -0.019787 -0.113484 
0.139378 0.060336 -0.028072 
0.128460 0.066631 -0.060743 
-0.022590 -0.112700 -0.152226 
-0.159257 0.024539 -0.059564 
-0.012748 -0.173579 0.194722 
-0.070636 0.063146 0.142088 
-0.089654 0.061904 0.174408 
-0.163726 0.241854 -0.157121 
-0.013725 -0.262153 0.247032 
-0.050991 -0.013683 0.206019 
0.061357 0.173261 -0.149294 
0.165895 -0.033394 0.073670 
0.113117 0.024528 0.050867 
0.147562 0.108706 -0.052667 
0.115177 -0.013673 0.063798 
-0.127904 0.019627 -0.100938 
-0.122790 0.161342 -0.086542 
-0.101172 -0.003109 -0.109809 
-0.042385 0.032013 0.235142 
0.034666 0.063242 0.147345 
-0.060844 0.056166 0.208102 
-0.021838 0.204746 -0.183416 
0.062270 0.024507 0.110485 
-0.116498 0.124193 -0.109612 
-0.192880 0.230764 -0.204110 
0.185702 0.231852 -0.149287 
-0.010787 0.213880 -0.198970 
0.177799 -0.054004 0.018589 
-0.119969 0.261410 -0.219826 
-0.206727 0.249601 -0.165506 
-0.161196 -0.013673 0.094527 
0.182245 -0.031336 0.140000 
-0.204768 -0.235117 0.078044 
-0.046710 0.062399 0.179754 
-0.053443 -0.165263 0.182746 
0.012242 -0.013675 0.151300 
-0.175373 -0.053699 -0.090920 
-0.165288 0.137633 -0.097746 
0.054945 -0.171220 0.179266 
-0.085547 0.067512 -0.107510 
0.100350 -0.007096 -0.118598 
-0.146375 0.003894 -0.087013 
0.014640 -0.013671 -0.050072 
-0.070458 -0.170092 0.173437 
-0.137954 -0.017719 -0.079973 
0.158642 0.048635 -0.051777 
-0.174828 -0.013587 0.117337 
0.178804 -0.047936 0.151507 
0.019287 0.060323 0.199228 
0.214739 0.030462 0.025939 
-0.063540 0.252273 -0.192720 
0.084609 0.128672 -0.123617 
0.171017 0.055451 0.189416 
-0.004986 0.201080 -0.179927 
-0.091020 0.024492 0.146207 
0.089121 0.076329 -0.115454 
0.223124 -0.031012 0.094400 
-0.215020 0.024404 0.048961 
-0.093091 0.245763 -0.169353 
0.198962 -0.043951 -0.038076 
-0.067787 0.063229 0.063563 
0.173891 0.083347 0.155261 
-0.144451 0.133998 -0.063854 
-0.189162 0.026588 -0.034393 
-0.201011 -0.022798 0.021192 
-0.166579 -0.013656 -0.032161 
-0.068626 -0.013680 0.164755 
-0.087782 0.024526 0.065488 
-0.092617 0.258902 -0.206486 
0.110294 0.052524 -0.108266 
0.012486 -0.119225 0.257073 
0.024869 -0.209519 0.217619 
-0.218494 0.252856 -0.213217 
0.027569 -0.261862 0.261379 
-0.014372 -0.253802 -0.175166 
-0.154197 0.103430 -0.043811 
0.047024 0.024502 0.106158 
0.142772 -0.050622 0.188626 
-0.153507 -0.013679 0.141152 
0.035092 -0.058549 0.200823 
0.015032 -0.152074 0.244233 
0.047793 -0.016997 0.221004 
0.203821 0.024560 0.027260 
0.155441 0.061318 0.004461 
0.000954 -0.195847 0.233928 
0.101595 0.076813 -0.076364 
0.177925 -0.063248 0.062923 
0.039284 0.024506 0.012062 
0.090354 0.063218 0.105604 
0.063118 0.224487 -0.250491 
0.148509 -0.013660 0.166047 
-0.120768 0.260578 -0.206625 
0.022036 -0.063555 0.267561 
0.067120 0.039234 -0.121922 
0.210913 0.244395 -0.218348 
0.154802 -0.040014 -0.071825 
-0.233524 -0.050107 0.086465 
-0.111985 -0.035852 0.204179 
-0.085569 0.024513 0.094757 
0.166969 -0.172784 0.025595 
-0.108301 0.024486 0.174946 
0.192319 0.053792 0.104973 
0.020987 0.223140 -0.218797 
-0.247537 -0.037435 0.055332 
-0.210520 -0.194395 0.050703 
-0.087856 0.043150 0.219832 
-0.114556 0.026721 0.211005 
-0.001151 0.024486 0.096828 
0.000432 -0.069123 0.207260 
-0.102688 -0.043227 -0.124989 
-0.035721 -0.023179 -0.144741 
-0.195929 -0.198276 0.041082 
0.067117 -0.013672 0.141519 
0.116936 0.106330 -0.072153 
0.174364 -0.013668 0.027846 
0.106156 0.262049 -0.232712 
0.024062 0.024505 0.022974 
0.009294 0.067512 -0.133023 
0.158100 0.257910 -0.211125 
0.119717 0.024528 0.092043 
0.114814 0.024535 0.167980 
-0.013724 0.244875 -0.283096 
-0.218842 -0.238113 0.078380 
0.247438 -0.066617 0.023513 
0.089144 0.024518 0.082092 
-0.046986 0.024453 -0.099139 
-0.091497 -0.042543 -0.116253 
-0.157951 0.024496 0.028343 
-0.129380 0.024519 0.117155 
-0.166412 0.234427 -0.141562 
-0.184966 0.105471 0.023891 
0.032107 0.201881 -0.176773 
-0.239490 -0.114974 0.065038 
0.146355 0.093787 -0.091813 
-0.013949 -0.115547 0.248913 
-0.110981 -0.021207 0.215812 
-0.004649 -0.013669 0.072428 
0.018672 0.095024 -0.106040 
0.026102 0.063237 0.059453 
0.024207 0.213805 -0.139363 
-0.126102 0.113653 -0.092259 
0.108747 0.214434 -0.175416 
0.128215 -0.165690 -0.030649 
-0.111072 0.063219 0.033322 
-0.182571 -0.233077 0.057177 
0.007368 0.240067 -0.176957 
-0.060462 0.024402 -0.058587 
-0.072071 0.136624 -0.129683 
0.063855 -0.005079 0.228122 
-0.153593 0.024534 0.181708 
-0.181626 -0.043845 -0.076201 
0.187657 0.230278 -0.197544 
-0.027605 0.052646 0.221398 
-0.166624 -0.046080 -0.061215 
-0.108485 0.175451 -0.136069 
0.184324 0.091792 -0.020838 
-0.016341 -0.013668 0.047936 
0.061888 -0.013669 0.179508 
0.211205 -0.205242 0.053147 
-0.038491 0.024467 0.191051 
-0.038849 -0.015409 -0.104928 
-0.127340 -0.022976 0.208206 
0.235427 -0.243568 0.062551 
0.015822 -0.013674 -0.072152 
-0.173797 0.207007 -0.147886 
0.015970 0.185954 -0.165381 
0.057604 -0.013661 0.004718 
0.177460 0.208765 -0.153719 
0.193330 0.104469 0.108567 
0.179294 -0.058124 0.073880 
0.133352 0.075216 -0.099970 
0.200293 -0.020814 -0.031041 
0.090997 0.215509 -0.182932 
-0.032110 0.231820 -0.161809 
0.148472 0.231708 -0.150771 
0.102001 -0.001900 0.212330 
-0.074020 -0.013675 0.088588 
-0.168269 0.105022 -0.072921 
0.101881 0.228531 -0.216738 
-0.039855 0.007309 -0.133336 
-0.013808 0.024541 -0.028379 
-0.061470 0.228813 -0.267106 
-0.036306 0.007625 0.237675 
0.075255 -0.013668 0.181110 
0.039030 -0.059755 0.236593 
0.125417 0.024541 0.172140 
0.016848 -0.186037 0.201450 
0.019722 0.228376 -0.157933 
0.007117 0.063244 0.018193 
-0.076981 0.063238 0.019234 
0.046829 0.187570 -0.161893 
0.186280 -0.024295 -0.025834 
-0.106445 -0.013683 0.074065 
-0.134752 0.032161 -0.093475 
0.062815 0.249998 -0.185426 
0.071915 0.113605 -0.125168 
-0.190837 0.024552 0.090484 
-0.183378 0.109404 0.103841 
0.172900 0.105714 0.014580 
0.010838 0.187596 -0.119923 
0.025357 -0.052870 -0.122603 
0.048613 0.100523 -0.130233 
0.133977 0.024539 0.124700 
0.187491 0.055031 0.009427 
0.112046 -0.029483 -0.116605 
0.147304 0.040816 0.182282 
-0.098949 0.054211 0.199201 
-0.012650 -0.013676 -0.035278 
-0.154039 0.200005 -0.140236 
0.089521 -0.040844 0.215811 
-0.252343 -0.049046 0.055660 
0.187563 0.073527 0.132930 
-0.215136 0.255407 -0.198213 
-0.029678 0.063226 0.110837 
0.172178 -0.013908 0.072677 
-0.030586 -0.013672 0.028979 
-0.178271 -0.067246 0.075261 
-0.193761 -0.041398 0.029083 
-0.156883 0.261587 -0.223752 
-0.224035 -0.017338 0.080732 
-0.039078 -0.013678 0.190604 
0.231902 -0.261190 0.066505 
0.037696 0.150452 -0.099609 
-0.207136 -0.029106 0.130316 
0.098802 -0.013675 0.074311 
0.056361 0.237973 -0.165619 
-0.153587 0.071073 0.143374 
0.191120 -0.019296 -0.010667 
0.216530 -0.039513 -0.018037 
-0.200569 -0.026393 0.138835 
0.173022 0.019007 0.165869 
0.202189 -0.150205 0.025567 
-0.165344 0.112929 0.163615 
0.040471 0.248466 -0.188578 
0.205661 0.038199 -0.002980 
-0.207569 -0.143920 0.037057 
-0.164107 -0.164643 0.021930 
0.099834 -0.046170 -0.109483 
-0.034449 0.061685 0.188487 
0.021388 -0.164494 0.236083 
-0.168857 0.091992 0.035190 
0.075845 -0.013665 0.167567 
-0.040663 0.063193 0.139951 
0.007608 -0.080656 0.214883 
-0.010078 -0.136982 -0.147316 
0.187368 0.057761 0.040938 
-0.054188 0.063221 0.118718 
0.204139 -0.041807 0.115201 
-0.052792 -0.013677 0.030523 
0.063912 0.041546 0.228170 
0.087389 0.053021 -0.077860 
0.012456 0.147072 -0.102829 
0.081377 0.224750 -0.249035 
0.131700 0.234612 -0.144341 
0.162168 0.073895 0.131390 
-0.063518 -0.164835 -0.082670 
-0.213780 0.240194 -0.165654 
-0.045405 0.024470 0.159803 
-0.118208 -0.047664 0.203490 
-0.151459 0.024534 0.100895 
-0.097395 -0.013665 -0.039289 
-0.148065 0.260176 -0.241933 
0.010665 -0.087848 0.266925 
-0.077822 0.063222 -0.001297 
-0.168363 -0.046873 0.052653 
-0.188476 0.056990 0.061801 
0.109127 0.051675 0.199821 
-0.014627 -0.143914 0.217463 
-0.026105 0.090930 -0.113773 
-0.028317 0.259121 -0.267257 
-0.195603 -0.008760 -0.044718 
-0.119671 0.135527 -0.111405 
-0.117647 0.024486 0.182033 
0.024250 0.063239 0.101295 
-0.024446 -0.059922 0.218956 
0.018846 0.024493 0.092983 
0.017599 0.227081 -0.232648 
0.029392 0.155095 -0.145578 
-0.192181 -0.026360 0.114202 
-0.077338 0.231196 -0.150292 
-0.094691 0.062854 -0.013771 
-0.230728 0.238404 -0.213478 
-0.006241 0.128912 -0.098139 
0.005307 0.063244 0.006382 
0.105587 0.058813 0.182370 
0.163654 0.024689 0.164015 
0.156632 0.104482 0.076972 
0.133079 0.020795 -0.098477 
-0.027691 -0.169391 -0.115202 
0.177713 0.093958 0.077018 
-0.155235 0.076330 0.118753 
-0.000939 0.182369 -0.117453 
-0.198064 -0.060960 0.084663 
-0.188162 0.107057 0.205439 
-0.026199 0.024337 -0.104476 
0.182031 0.035440 0.178421 
-0.182170 0.106623 0.069677 
0.039953 0.024501 0.174776 
0.028968 0.061870 -0.068458 
0.210150 0.009188 0.012653 
-0.026550 0.194466 -0.172251 
